# .PCD v0.7 - Point Cloud Data file format
VERSION 0.7
FIELDS x y z
SIZE 4 4 4
TYPE F F F
COUNT 1 1 1
WIDTH 1503
HEIGHT 1
VIEWPOINT 0 0 0 1 0 0 0
POINTS 1503
DATA ascii
-59.195934 41.381001 -1962.7181
47.304142 41.380199 -1962.5898
48.33136 41.018383 -1963.5742
-59.014843 43.10828 -1963.0615
47.241859 43.18042 -1962.9905
48.339973 42.555538 -1963.9362
-58.546661 44.931889 -1963.3995
-57.614079 45.533905 -1962.5574
45.430656 45.383568 -1962.1647
46.596985 45.11618 -1963.0103
-57.122574 47.046997 -1962.9109
45.297356 46.97036 -1962.6094
46.269024 47.254509 -1963.7152
-56.679676 48.948952 -1963.1528
44.92186 49.096874 -1962.7257
46.032608 48.566593 -1963.425
-56.351734 50.957455 -1963.5522
-55.120735 51.353294 -1962.5935
43.483215 51.232155 -1962.2604
44.809616 51.071209 -1963.2489
46.044304 50.013233 -1963.9377
-54.828617 52.92411 -1962.9224
-53.737446 53.027954 -1962.328
41.997482 53.989738 -1962.4935
43.23325 53.179615 -1962.8245
44.508026 52.491856 -1963.6627
-54.634495 54.880489 -1963.6959
-53.335346 55.219154 -1962.6122
41.279587 55.277939 -1962.4374
42.518303 55.089417 -1963.3931
-52.977627 56.92487 -1963.1633
-51.443089 57.994259 -1962.2953
39.697475 57.419743 -1962.1686
40.933529 56.943085 -1963.0365
42.313663 56.322227 -1963.8934
-52.402191 58.669998 -1963.3477
-51.06715 59.338928 -1962.5419
39.299644 59.238556 -1962.76
40.58514 58.606339 -1963.5394
-52.057671 60.335072 -1963.8915
-50.821266 60.816269 -1963.2091
-49.497028 60.978493 -1962.4202
37.981644 61.151615 -1962.3872
39.071774 60.817001 -1963.1594
40.307171 60.340355 -1963.9878
-50.323051 62.326088 -1963.3616
-49.278618 62.99881 -1962.8721
-47.999489 63.720722 -1962.1436
37.578724 63.005283 -1962.7458
38.575848 62.618828 -1963.4774
-48.404507 64.706566 -1963.0883
-47.142597 65.157608 -1962.27
35.492268 65.250313 -1962.1185
36.846523 64.897789 -1963.0231
38.006363 64.346405 -1963.7025
-48.042721 66.64653 -1963.951
-46.746693 66.680099 -1963.0464
-45.522873 67.074638 -1962.465
33.962528 67.731583 -1962.0612
35.236961 67.012054 -1962.8135
36.47559 66.256523 -1963.652
-46.314758 68.644196 -1963.6633
-45.078648 68.832947 -1962.8997
-43.414661 69.453171 -1962.1906
33.590473 69.089516 -1962.6598
34.845657 68.637352 -1963.4001
-44.401531 70.458511 -1963.6113
-42.857292 70.912308 -1962.9291
-41.558655 71.327736 -1962.5219
31.297365 71.383232 -1962.6849
32.888447 70.692505 -1963.2886
-42.494865 72.570732 -1963.8688
-41.139652 72.923569 -1963.0613
-39.790592 73.28537 -1962.5063
29.286409 73.283524 -1962.4039
31.042473 72.859039 -1963.2024
32.270592 72.665367 -1963.7893
-40.580883 74.288292 -1963.786
-38.897667 74.695045 -1963.0421
-37.346352 75.428917 -1962.6025
25.941498 75.764839 -1962.3463
27.174206 75.367493 -1962.6625
28.916864 74.74929 -1963.2803
-38.28318 76.385262 -1963.6312
-36.943027 76.763908 -1963.5311
-35.629356 76.925613 -1962.7672
23.650721 77.491463 -1962.5343
25.371893 77.167809 -1962.6368
27.020321 76.788086 -1963.405
28.251326 76.383865 -1963.5476
-34.900932 78.938148 -1962.9344
-32.820621 79.220505 -1962.8184
-31.303286 79.460831 -1962.6803
-29.372326 79.771255 -1962.2515
19.637386 79.782898 -1962.5063
21.287985 79.433807 -1962.7354
23.024864 78.768845 -1962.9504
24.693521 78.328598 -1963.4189
-33.115131 80.672981 -1963.3081
-30.939392 80.509682 -1963.5101
-29.098146 81.047897 -1963.111
-27.756693 81.324432 -1962.8623
17.229023 81.384903 -1962.4424
19.066454 80.93924 -1962.7552
20.794825 80.725914 -1963.5535
22.517765 80.406387 -1963.7577
-27.096693 82.402428 -1963.5167
-24.999462 83.072838 -1962.8961
-23.357153 83.285599 -1962.5427
11.610067 83.783882 -1962.2554
13.332474 83.473953 -1962.6711
15.106219 83.029488 -1962.8976
16.892986 82.627327 -1963.3787
18.784611 82.106995 -1963.2786
-24.516045 84.41098 -1963.5591
-22.651239 84.551376 -1963.4843
-21.070869 85.040421 -1963.1865
-19.345219 85.191025 -1962.6394
-17.335583 85.503326 -1962.2854
7.4070115 85.315453 -1962.3395
9.1469116 85.058876 -1962.5902
10.969672 84.89283 -1963.0627
12.650213 84.642639 -1963.582
-20.504532 86.145546 -1963.8868
-18.779194 86.268433 -1963.4128
-16.972759 86.514664 -1962.9521
-15.02086 87.037834 -1962.8292
-13.12052 87.399208 -1962.583
-11.032174 87.80809 -1962.5721
-8.7377129 87.794678 -1962.2668
-7.3042397 87.787605 -1962.1058
-4.43855 87.78669 -1962.0826
-2.1460409 87.785301 -1962.0505
-0.71333897 87.794464 -1962.2565
1.0635965 87.686676 -1962.4092
3.0130084 87.527596 -1962.6978
5.0680695 87.110039 -1962.9747
7.0280471 86.404991 -1963.2363
8.6073751 86.285233 -1963.7784
-14.768693 88.44352 -1963.9772
-12.902866 88.577263 -1963.7593
-11.133092 88.615479 -1963.542
-9.028409 88.694244 -1963.1647
-7.0921865 88.82605 -1962.9064
-5.0139012 88.97274 -1962.9794
-3.0072711 88.977272 -1963.0796
-1.0823574 88.821762 -1963.2635
0.79170513 88.776329 -1963.3914
3.0141201 88.422081 -1963.4825
4.448977 88.442551 -1963.9414
-6.4414072 -122.49046 -1961.6677
-5.0083332 -122.75343 -1961.2933
-2.8892226 -122.9282 -1961.3414
-0.99920112 -123.04633 -1961.4006
0.89091635 -122.92805 -1961.3398
3.0104482 -122.98357 -1961.5427
4.1564898 -122.49656 -1961.7644
-14.631346 -120.41294 -1961.3933
-12.942487 -120.56292 -1960.9004
-11.091908 -120.87204 -1960.9412
-8.9195681 -121.1926 -1960.7231
-7.0118065 -121.4928 -1960.9528
-5.0062509 -121.55753 -1960.4537
-2.9070477 -121.46191 -1960.4484
-1.0804695 -121.42767 -1960.3337
0.82281995 -121.26441 -1960.3354
2.8943524 -121.50358 -1960.5052
5.0795321 -121.20464 -1960.7968
7.0195022 -120.86863 -1961.3473
8.73771 -120.5894 -1961.3275
-20.763481 -118.48505 -1961.7028
-18.850241 -118.65318 -1961.3198
-17.033804 -119.01628 -1961.0088
-15.028435 -119.57965 -1960.8623
5.6417017 -119.08364 -1960.2122
7.1606412 -119.43179 -1960.7693
9.0227938 -119.01672 -1961.0028
10.840405 -118.87165 -1961.7646
-25.060638 -116.19648 -1961.7281
-22.952166 -116.77674 -1961.0465
-21.039078 -117.27921 -1960.6708
-19.249029 -117.48929 -1960.5918
-17.600546 -117.83112 -1960.3254
9.3061466 -117.83422 -1960.3617
11.218537 -117.49548 -1961.0786
12.976199 -116.91605 -1961.2806
14.468792 -116.19884 -1961.7386
-28.494396 -114.4636 -1961.4675
-26.844177 -114.80723 -1961.2184
-25.049147 -114.99789 -1960.8003
-23.134941 -115.16143 -1960.3292
13.887159 -115.55333 -1960.4863
15.034758 -114.99966 -1960.803
16.183117 -114.44936 -1961.1826
-30.78616 -112.50143 -1961.4762
-29.061117 -113.1032 -1961.0312
-27.762735 -113.39739 -1960.3365
-25.613792 -113.81734 -1960.1726
15.316736 -113.82243 -1960.231
17.267727 -113.10869 -1960.7543
18.61721 -112.58736 -1961.1472
-34.514923 -110.47298 -1961.772
-32.842339 -110.77922 -1961.0984
-31.491402 -111.41969 -1960.7821
-29.623812 -111.5385 -1960.3455
17.892393 -111.52975 -1960.151
19.044012 -110.99607 -1960.8351
20.652275 -110.67828 -1961.2957
-36.52248 -108.47487 -1961.88
-34.925541 -108.86128 -1961.2911
-33.304401 -109.00385 -1960.3344
19.419992 -109.24583 -1960.2251
21.117128 -109.07179 -1961.0627
22.490536 -108.75694 -1961.7458
-38.583927 -106.92461 -1961.8064
-37.009949 -106.93072 -1961.1184
-35.352055 -107.21345 -1960.4821
19.60907 -106.94634 -1960.0154
21.122599 -106.96813 -1960.4222
22.975109 -106.84382 -1961.1517
24.401016 -106.65933 -1961.7778
-40.521713 -104.14838 -1961.28
-38.914436 -104.94142 -1961.1129
-37.373138 -105.87151 -1961.3772
21.258579 -105.46217 -1960.3433
23.056795 -105.00223 -1961.1147
24.496614 -104.84531 -1961.7578
-43.188232 -102.60516 -1960.9701
-41.079453 -103.53764 -1960.5509
23.631248 -103.57807 -1961.2423
24.780874 -103.21301 -1961.5619
26.782293 -102.43446 -1961.2754
-48.549816 -100.15753 -1961.6414
-47.295269 -100.70208 -1961.0844
-45.107403 -101.86483 -1961.4221
27.635107 -101.83841 -1960.8195
29.238852 -101.26685 -1960.8383
31.214972 -100.55193 -1960.8555
32.797588 -100.28874 -1961.3151
-50.840626 -98.437195 -1961.6002
-49.296734 -99.16864 -1960.9525
33.594128 -99.213356 -1960.9918
34.898952 -98.811897 -1961.3633
-52.848763 -96.151299 -1961.6995
-51.181862 -97.142891 -1960.6831
35.192993 -97.596092 -1960.7029
36.692833 -96.594299 -1961.2885
-52.958393 -94.900002 -1961.1907
-51.956207 -95.231155 -1960.42
37.599926 -95.195465 -1960.7756
38.53212 -94.719299 -1961.593
-54.465664 -92.798424 -1961.4349
-53.325726 -93.172462 -1960.7595
37.359882 -92.934814 -1960.168
39.17411 -93.01091 -1960.9249
40.254623 -92.722618 -1961.7596
-54.83638 -90.965683 -1961.0089
-53.668854 -91.500954 -1960.199
39.649834 -91.21701 -1960.1525
40.746441 -90.910645 -1961.272
-56.380569 -89.274467 -1961.5957
-55.178818 -88.967026 -1960.6282
-53.67643 -89.223534 -1960.4484
41.243786 -88.921089 -1961.0615
-56.943905 -86.777122 -1961.2345
-55.562778 -87.02282 -1960.6115
41.540802 -87.025429 -1960.575
42.541214 -87.268509 -1961.4569
-58.286236 -84.971672 -1961.4204
-57.238953 -85.06221 -1960.8542
-55.95953 -85.776962 -1960.1683
41.943577 -85.499359 -1960.2673
43.057766 -84.994362 -1961.2323
-58.524017 -82.864288 -1961.6882
-57.30899 -83.02948 -1960.6136
43.390156 -82.951767 -1960.9336
44.268051 -82.700439 -1961.7749
-58.802185 -80.876823 -1961.2122
-57.485672 -81.386971 -1960.1105
43.435883 -81.326424 -1960.3916
44.711807 -80.840286 -1961.1068
-60.15892 -78.970749 -1961.7227
-59.001896 -79.010338 -1960.6554
45.202072 -78.938988 -1960.8153
-60.582134 -76.861649 -1961.4905
-59.269615 -76.711845 -1960.6945
45.684486 -76.943146 -1961.0208
46.845699 -76.109367 -1961.6794
-60.861431 -74.943123 -1961.2394
-59.744061 -75.021324 -1960.2744
45.953999 -74.910889 -1960.2778
46.783615 -74.84111 -1961.4622
-60.961758 -72.848427 -1961.3745
-59.734104 -72.787956 -1960.4625
45.960991 -73.490601 -1960.5634
47.005608 -72.824585 -1961.1379
-62.311665 -70.95385 -1961.7867
-61.151016 -70.936783 -1961.3013
-59.975689 -70.901924 -1960.3197
47.343575 -70.811066 -1960.8824
-62.309917 -68.850922 -1961.7104
-61.146557 -68.926704 -1961.1371
-59.975563 -68.897675 -1960.2954
47.225407 -68.858322 -1960.7097
48.279778 -68.376152 -1961.6753
-62.600651 -67.518509 -1961.8342
-61.144489 -66.919556 -1961.0505
-59.745483 -67.006981 -1960.2406
47.399494 -66.914253 -1960.7875
48.280964 -66.945312 -1961.7102
-62.417645 -64.871048 -1961.4557
-61.130749 -64.9002 -1960.5878
-59.971928 -64.790268 -1960.1367
47.567268 -64.961311 -1960.6031
48.277885 -64.935608 -1961.5652
-62.707363 -62.918064 -1961.2839
-61.198326 -62.891651 -1960.4417
-59.969376 -63.451576 -1960.0405
47.676922 -62.893139 -1960.3844
48.556396 -62.919647 -1961.2218
-62.817467 -60.937534 -1961.2202
-61.414246 -61.1749 -1960.4673
47.668869 -60.878555 -1960.033
48.511452 -60.868587 -1961.0392
-64.039169 -58.928482 -1961.9531
-62.86113 -58.898533 -1960.938
-61.705181 -58.888725 -1960.5991
48.771164 -58.909126 -1961.1819
-64.612549 -57.782574 -1961.9576
-62.812778 -56.923218 -1961.0375
-61.698544 -57.73711 -1960.3771
48.926975 -56.877419 -1961.0076
50.007862 -56.066422 -1961.9353
-64.037445 -54.628864 -1961.865
-63.033161 -54.978119 -1961.1702
47.681011 -54.307934 -1960.4821
49.004612 -54.814995 -1961.0784
-64.149887 -52.735981 -1961.7845
-63.04071 -52.970139 -1960.5385
47.55801 -53.038563 -1960.1204
48.790905 -52.972141 -1961.146
-64.263634 -50.786892 -1961.7451
-63.147186 -50.879139 -1960.8688
47.671204 -50.86121 -1960.0496
48.554657 -50.886898 -1961.0529
-64.033478 -49.468208 -1961.7046
-62.859783 -48.873505 -1960.8185
-61.695881 -48.57283 -1960.2225
48.958099 -48.884247 -1961.1381
-64.041176 -46.895145 -1961.9244
-62.864033 -46.871994 -1960.9381
48.910889 -46.874977 -1960.9529
50.004501 -46.893387 -1961.7356
-62.871277 -44.986881 -1961.1537
-61.697735 -45.138508 -1960.2589
48.954945 -44.985565 -1960.986
50.007202 -44.316921 -1961.8259
-62.585052 -42.867397 -1961.1465
49.135151 -42.873291 -1961.3114
50.004372 -43.168221 -1961.7065
-62.788898 -40.902637 -1961.1111
49.121677 -41.143101 -1960.7587
50.010292 -40.594154 -1961.9253
-62.580582 -39.045254 -1960.9824
49.325569 -39.34219 -1960.7213
50.004272 -38.583511 -1961.6763
-62.578739 -37.134769 -1960.9139
49.400597 -37.013229 -1960.4387
50.293499 -37.009499 -1961.7749
-62.533062 -35.004387 -1960.7528
-61.692734 -35.400936 -1960.0432
49.863029 -35.298069 -1960.6018
50.57333 -34.569206 -1961.5021
-62.706333 -33.209347 -1961.0468
-61.694683 -33.111649 -1960.0945
49.834915 -33.265057 -1960.6123
50.861755 -33.137817 -1961.5699
-62.583477 -31.122261 -1961.0344
50.95079 -31.032694 -1961.3091
-62.687683 -29.31241 -1961.3016
-61.695026 -28.817295 -1960.0864
51.142391 -29.28677 -1961.3251
-62.541195 -27.152548 -1960.9745
-61.699734 -26.815222 -1960.2291
51.375332 -26.988253 -1960.8337
52.439194 -26.691801 -1961.6127
-62.536152 -25.111176 -1961.3254
-61.702652 -25.098475 -1960.3163
51.542625 -25.240997 -1960.1851
52.433216 -24.969683 -1961.3805
-62.666668 -23.321329 -1961.3708
-61.590191 -23.152155 -1960.3746
51.685116 -22.806871 -1960.152
52.809486 -23.184889 -1961.3223
-62.534534 -20.985271 -1961.2611
-61.699234 -21.088591 -1960.1937
52.786125 -21.099848 -1961.1738
-62.594109 -19.095268 -1961.3275
-61.706451 -18.991217 -1960.4186
51.681606 -18.224428 -1960.0046
52.854839 -19.093397 -1961.0585
-62.693157 -16.995308 -1961.4354
-61.564121 -16.939104 -1960.4387
52.780884 -17.159065 -1960.9639
-62.430237 -14.914456 -1961.5713
-61.521973 -14.983645 -1960.6128
51.688564 -14.790728 -1960.2626
52.73996 -15.082888 -1961.0367
-62.322674 -13.08221 -1961.7905
-61.308704 -13.075492 -1960.7643
51.407024 -12.787502 -1960.4396
52.27969 -13.07724 -1960.96
-61.096851 -11.14944 -1960.8839
-59.980133 -10.20814 -1960.116
49.499802 -10.687823 -1960.5004
51.186501 -11.046071 -1960.9659
52.296768 -11.362292 -1961.6029
-61.001728 -9.1506577 -1961.416
-59.987385 -9.0639086 -1960.3531
49.153366 -9.0655994 -1960.6376
50.677856 -9.0708075 -1961.7753
-60.733105 -6.9914079 -1961.3267
-59.75293 -7.2307067 -1960.1715
47.30397 -6.8693357 -1960.4707
48.775814 -7.514328 -1961.5461
-60.788151 -5.0581708 -1961.5631
-59.700729 -4.9118614 -1960.3361
46.9645 -5.1390867 -1961.0999
-60.780716 -3.2430594 -1961.3208
-59.997223 -3.9102931 -1960.6724
46.886768 -3.1749547 -1961.2726
-60.867451 -1.0465313 -1961.0347
47.117939 -1.0463947 -1960.6722
-60.732605 0.95879573 -1961.3071
-59.79649 1.2446246 -1960.3453
45.959435 1.2445869 -1960.1117
46.977394 1.1018212 -1960.7787
-60.162636 2.8211133 -1961.4026
-58.945385 3.1276035 -1961.0631
-57.696339 3.5354569 -1960.321
45.81723 3.1058207 -1960.1526
47.057861 3.0357509 -1961.152
-58.723911 4.9693503 -1961.1809
41.955456 5.8265519 -1960.3086
45.68465 4.7773166 -1960.6099
46.854858 5.4006252 -1961.6593
48.283844 5.543426 -1961.5112
-59.0658 6.9756756 -1961.4435
45.118149 6.6874576 -1960.8823
46.739014 6.4007897 -1960.8071
48.989235 6.9744887 -1961.079
50.001957 7.5490112 -1961.4827
-58.861584 8.2630243 -1960.9982
-56.733738 8.5291281 -1960.988
-55.609241 8.6918716 -1960.7651
49.571541 8.8550272 -1960.6393
50.572441 9.5541401 -1961.3887
-62.32769 11.275902 -1961.9465
-61.157074 10.79392 -1961.1514
-59.453392 10.701183 -1961.6378
49.972946 10.408222 -1960.3392
51.143158 10.986208 -1961.3025
-62.419903 13.162456 -1961.2405
-61.708534 12.412985 -1960.4707
51.697193 12.891373 -1960.5885
52.27953 13.275786 -1960.9545
-62.963703 14.993618 -1960.932
52.862743 14.997358 -1961.3474
-64.032623 17.099045 -1961.525
-63.429001 16.995354 -1960.5664
53.418571 16.825596 -1960.7211
54.015133 17.291473 -1961.5957
-64.220062 19.008152 -1961.4213
-63.99575 19.570953 -1960.3931
53.698456 18.999882 -1960.4866
54.004589 19.293447 -1961.215
-64.59211 20.938774 -1961.1248
53.987743 21.101194 -1960.6039
54.283947 21.295937 -1960.9658
-66.320641 23.018978 -1961.4413
-65.040085 22.78265 -1960.8193
-63.984394 22.430456 -1960.0511
53.980888 22.721207 -1960.3583
-66.507133 25.309198 -1961.3154
-65.736877 25.30689 -1961.1198
53.230999 25.304934 -1960.8698
54.008278 24.165272 -1961.3654
-65.172462 26.885777 -1961.3776
52.425892 26.883694 -1961.1125
-65.155846 29.170254 -1960.8828
51.475849 29.086823 -1960.934
-64.400017 31.417746 -1961.1295
-63.988365 31.021311 -1960.2064
49.969715 31.596823 -1960.2751
50.702095 30.89101 -1960.9188
-63.73251 32.755119 -1961.1594
49.004429 33.407871 -1960.9362
50.001354 32.189877 -1961.5286
-62.497013 35.049747 -1961.3395
-61.719772 35.615013 -1960.9099
47.678955 35.605583 -1960.2775
48.464375 35.04871 -1961.1699
-62.314247 36.20042 -1961.6042
-61.15477 36.908508 -1961.1615
47.365601 37.007301 -1960.8596
48.28949 36.493225 -1961.8352
-59.124752 38.75428 -1960.3273
45.960789 39.614258 -1960.2819
46.837784 39.056591 -1961.0402
-58.632347 40.88932 -1961.1096
-57.509937 41.718658 -1960.5962
45.777309 41.243595 -1960.61
46.839386 40.490162 -1961.1167
-58.299122 42.787491 -1961.475
-57.296822 43.058918 -1960.777
45.475979 43.137299 -1961.0029
46.573071 42.513809 -1961.9836
-56.935146 44.862106 -1961.3667
-55.633888 45.456451 -1960.4231
43.66539 45.336224 -1960.0908
44.898918 45.170055 -1961.178
-56.009045 47.086578 -1961.5508
-55.130428 47.070251 -1960.858
43.446159 47.06472 -1960.5457
44.498878 47.202385 -1961.5201
-54.854431 49.084309 -1961.2423
-53.683327 49.633949 -1960.3123
43.162083 49.155899 -1960.8988
44.277531 49.388638 -1961.8861
-54.577011 50.811527 -1961.5819
-53.281616 51.154366 -1960.5887
41.814758 51.2183 -1960.6101
42.693726 50.955524 -1961.5302
-54.299023 52.825436 -1961.9067
-52.939026 53.12101 -1961.0469
-51.77478 53.738297 -1960.3398
41.335651 53.004971 -1960.7401
42.743683 52.438568 -1961.6434
-52.576984 54.828514 -1961.8071
-51.286774 55.140663 -1960.6635
39.378937 55.36858 -1960.5479
40.480194 54.985352 -1961.1863
-50.892506 56.962967 -1961.3042
-49.486465 57.272465 -1960.4438
37.653702 57.935074 -1960.1901
38.958004 57.099449 -1960.9952
40.260036 56.258423 -1961.6399
-50.474686 58.743366 -1961.7838
-49.278095 59.179405 -1960.8475
37.314995 59.225281 -1960.7896
38.536789 58.830933 -1961.4412
-48.665627 60.94239 -1961.2432
-47.847363 61.265541 -1960.5736
36.955383 61.113419 -1961.1442
-48.561382 62.559864 -1961.6781
-47.11097 63.108856 -1960.9202
-45.659744 63.655083 -1960.0913
33.93137 63.088398 -1960.2043
35.165771 63.101463 -1960.618
36.474289 63.014179 -1961.4789
-46.606544 64.613747 -1961.4059
-45.103615 65.205772 -1960.8206
-43.757435 65.763977 -1960.3817
33.692268 65.227585 -1960.5917
34.84621 64.834091 -1961.0714
36.253975 64.290558 -1961.9758
-44.690407 66.996391 -1961.5603
-43.121964 67.162361 -1960.689
31.639599 67.380424 -1960.1543
33.085205 67.12249 -1960.9932
34.534748 66.583443 -1961.9987
-43.083698 68.798538 -1961.3379
-41.250347 69.230019 -1960.4802
-39.359325 69.949707 -1960.0084
29.49506 69.820335 -1960.3486
31.075457 69.021629 -1960.7048
32.616772 68.669098 -1961.5527
-42.257259 70.008034 -1961.672
-40.916115 70.860443 -1961.4728
-39.199574 71.23101 -1960.6207
27.631622 71.675659 -1960.1991
29.149775 71.175652 -1960.7694
30.97674 70.470512 -1961.7314
-40.543568 72.309708 -1961.9471
-38.875732 72.732529 -1961.3188
-37.16375 73.001106 -1960.7053
-35.73888 73.778419 -1960.3422
25.72761 73.78875 -1960.5741
27.136566 72.908485 -1960.6422
28.889908 72.483192 -1961.4127
-36.934296 74.506248 -1961.5789
-35.438599 75.206856 -1960.8998
-32.875763 75.496429 -1960.3496
23.193108 75.538223 -1960.1564
25.065006 75.141472 -1961.0168
26.964443 74.250053 -1961.684
-34.92083 76.995102 -1961.6071
-33.072392 76.846054 -1960.7081
-31.140553 76.884773 -1960.3594
-29.247663 77.592384 -1960.2617
17.895327 77.966125 -1960.0253
19.043276 77.977654 -1960.3204
21.241934 77.22702 -1960.6476
22.987497 76.785477 -1960.9512
24.671997 76.541206 -1961.6746
-34.805855 78.025482 -1961.5923
-33.07806 78.577644 -1961.0743
-30.92205 78.47068 -1961.5664
-28.987305 78.989281 -1961.1139
-27.136059 79.186615 -1960.6495
-25.050232 79.69735 -1960.403
15.319598 79.687584 -1960.1329
17.199747 79.257568 -1960.5131
18.980658 79.088814 -1961.2666
20.844406 78.37944 -1961.4352
-33.639015 80.267784 -1960.3905
-28.79163 80.323509 -1961.7407
-26.782797 80.804955 -1961.4991
-25.059452 80.872414 -1961.1406
-23.172016 81.181137 -1960.6877
-21.03821 81.974304 -1960.0874
9.8798285 81.975624 -1960.0946
10.453078 81.981102 -1960.2275
13.604092 81.132225 -1960.4667
15.03871 80.861855 -1960.8544
16.923843 80.54911 -1961.2135
-25.06917 82.049934 -1961.9232
-22.690313 82.442192 -1961.5095
-20.977945 83.09259 -1961.1626
-19.072765 83.33934 -1960.7858
-17.223391 83.511726 -1960.3453
5.2992449 83.692123 -1960.082
7.399374 83.50972 -1960.2808
9.1389027 83.265884 -1960.833
11.030731 82.877937 -1961.1409
12.81463 82.474701 -1961.3912
14.471614 82.03968 -1961.6462
-21.05759 84.342209 -1961.9359
-18.649149 84.564568 -1961.7709
-16.956907 84.715141 -1961.0792
-15.109064 84.915222 -1960.712
-13.169807 85.293839 -1960.74
-11.11546 85.707222 -1960.3701
-9.0143461 85.789162 -1960.0573
-7.0110893 85.844467 -1960.2303
-5.0071273 85.989326 -1960.27
-2.5735378 85.844437 -1960.2268
-0.99891675 85.702438 -1960.251
0.90985411 85.613365 -1960.3966
3.0094688 85.13504 -1960.3647
5.0150094 84.87011 -1960.8588
6.8298383 84.693291 -1961.188
8.4541798 84.323532 -1961.4717
-14.752362 86.053459 -1961.7568
-12.917223 86.272995 -1961.5339
-11.057522 86.801918 -1961.4038
-9.102109 87.018372 -1961.3629
-6.9186573 86.980072 -1961.1089
-5.080946 87.100868 -1961.142
-3.0825286 87.12281 -1961.1949
-0.99930847 86.880341 -1961.0073
1.0376375 86.676796 -1961.4436
3.011236 86.331902 -1961.5597
4.7308412 86.05732 -1961.8319
-7.303112 88.347275 -1961.8116
-10.726472 -120.07172 -1959.5391
-9.0090818 -120.20646 -1959.4021
-7.0061946 -120.34678 -1959.3569
-5.0030918 -120.33562 -1959.1722
-3.0010016 -120.35326 -1959.4609
-0.88394463 -120.3125 -1959.7299
1.4051168 -120.30371 -1959.5857
3.0892413 -120.56514 -1959.5878
4.7246661 -120.08518 -1959.7543
-16.450598 -118.36759 -1959.7314
-15.017352 -118.63365 -1959.3983
-13.012072 -118.89708 -1959.0209
-11.008087 -118.87846 -1958.7086
-9.0054789 -119.1575 -1958.5963
-7.193543 -119.24106 -1958.4017
-4.8580589 -119.28482 -1958.3359
-2.9993465 -119.57304 -1958.3777
-0.99783683 -119.16555 -1958.7238
1.0041529 -118.88107 -1958.7438
3.0067086 -118.89823 -1959.0304
4.5603676 -118.83939 -1959.4098
6.8996172 -118.60071 -1959.7891
-20.887024 -116.22748 -1959.8101
-18.80637 -116.4055 -1959.1854
-17.018791 -117.00392 -1959.2313
-15.296603 -117.49369 -1958.4948
-13.577431 -117.69427 -1958.0222
3.0056641 -117.71561 -1958.3676
5.0651078 -117.61375 -1958.5765
6.8678861 -117.60062 -1958.8369
9.1099243 -116.93825 -1959.1805
10.827377 -116.44016 -1959.353
12.451411 -116.08466 -1959.792
-22.741991 -114.34151 -1959.3384
-21.019476 -114.88144 -1958.7863
-19.185537 -115.31864 -1958.4402
9.5818043 -115.70293 -1958.153
11.129491 -115.22563 -1958.7877
12.943008 -114.8635 -1959.3521
14.453986 -114.36311 -1959.6893
-28.751209 -112.05699 -1959.3992
-26.793427 -112.76099 -1959.2035
-24.950445 -113.01447 -1958.632
-22.852245 -113.63369 -1958.9587
-21.014252 -113.70917 -1958.2799
13.238245 -113.28049 -1958.5347
14.939646 -113.01775 -1959.0178
16.398672 -112.52364 -1959.5215
-30.828321 -110.70807 -1959.5662
-29.030029 -110.88457 -1958.8839
-27.306732 -111.28506 -1958.3772
-25.302761 -111.70428 -1958.2046
15.396701 -111.32557 -1958.2157
16.944603 -110.83239 -1958.8407
-32.706001 -108.87395 -1959.7556
-31.103146 -109.09686 -1959.1647
-29.166309 -109.57207 -1958.4088
-27.30257 -109.6955 -1958.0515
15.098915 -108.73736 -1958.4032
17.021914 -108.87798 -1958.7362
18.903177 -108.81841 -1959.3867
20.179066 -108.36433 -1959.7996
-34.75621 -106.70577 -1959.15
-33.331951 -107.48852 -1959.5194
-31.311163 -107.99952 -1958.3994
17.42544 -107.23817 -1959.0641
18.960581 -106.92071 -1959.5404
20.177687 -106.92612 -1959.6433
-38.753662 -104.30103 -1958.7434
-37.051544 -105.48511 -1959.4998
19.313759 -105.75096 -1959.0543
21.030081 -104.60619 -1959.0334
-42.467018 -102.2867 -1958.5012
-41.322586 -102.8575 -1958.4802
23.031931 -103.2681 -1958.9618
25.041237 -102.48547 -1959.4944
-46.485329 -100.31575 -1959.1078
-45.195755 -101.16939 -1959.02
-43.89584 -101.71214 -1958.4519
25.88382 -101.70777 -1958.2781
27.037537 -101.4585 -1958.9919
28.610197 -100.74076 -1958.9377
30.762569 -100.04774 -1959.3748
-48.686596 -98.520081 -1959.4222
-47.261383 -99.077515 -1958.6494
29.889469 -99.998703 -1958.4031
31.105043 -98.92643 -1958.3967
32.681568 -98.732918 -1959.2283
-50.64975 -96.198456 -1959.7131
-49.109177 -96.955055 -1958.9617
-47.899807 -97.422684 -1958.4237
33.52145 -97.356651 -1958.9331
35.055023 -96.615433 -1959.3724
36.208717 -96.06739 -1959.8698
-50.895821 -94.831802 -1959.2463
-49.272385 -95.077248 -1958.3938
35.328293 -95.722061 -1958.6428
36.685467 -94.722946 -1959.1023
-52.648052 -92.46962 -1959.4944
-51.2439 -93.16214 -1959.0105
-49.323677 -93.69326 -1958.1399
37.098824 -93.021179 -1958.9634
38.783367 -92.629929 -1959.7744
-53.007423 -90.827026 -1959.5367
-51.47781 -90.993454 -1958.4832
37.264732 -91.10817 -1958.4707
38.89584 -90.807091 -1959.2327
-54.224739 -88.325165 -1959.5581
-53.018726 -88.855804 -1959.2072
-51.763218 -89.133438 -1958.4388
37.556225 -89.364738 -1958.407
39.109062 -88.958778 -1959.0938
40.215088 -88.815521 -1959.7687
-54.44339 -86.763443 -1959.1666
-53.279625 -86.846298 -1958.442
-51.901596 -87.695663 -1958.2471
37.607994 -87.693207 -1958.1014
39.045517 -87.042862 -1958.4855
40.437222 -86.778351 -1959.4114
-56.521439 -84.329872 -1959.7856
-55.075817 -85.022682 -1959.2554
-53.143997 -85.317513 -1958.3439
39.042217 -85.415009 -1958.3024
41.016102 -84.931038 -1959.2443
-56.712494 -82.708427 -1959.7759
-55.134373 -83.173546 -1958.9661
-53.616722 -83.976791 -1958.1876
41.340275 -83.051758 -1958.7642
42.506298 -82.903656 -1959.7826
-57.015461 -80.814285 -1959.5117
-55.425461 -81.21978 -1958.9281
41.521557 -81.316956 -1958.299
42.873795 -80.682587 -1959.1069
-58.240646 -78.608597 -1959.8014
-57.017048 -78.979347 -1959.0488
-55.715565 -79.117653 -1958.2079
41.897686 -79.400452 -1958.0358
43.053024 -79.039986 -1958.5591
44.224052 -78.611191 -1959.7642
-58.353722 -77.061256 -1959.7371
-57.132538 -77.035301 -1959.0637
-55.904297 -77.113159 -1958.1196
43.621296 -77.126434 -1958.3734
44.538826 -76.995132 -1959.1996
-58.643219 -74.797974 -1959.5496
-57.019569 -75.064011 -1958.9132
-55.904869 -75.112099 -1958.1184
43.332779 -75.691971 -1958.2417
44.724968 -74.980667 -1959.093
-58.619377 -72.976181 -1959.646
-57.068298 -73.135246 -1958.7791
-55.907661 -73.113968 -1958.1957
45.181236 -72.91806 -1959.0071
-58.802849 -70.86853 -1959.3789
-57.172676 -71.120285 -1958.4141
-55.763794 -71.110924 -1958.1432
45.636028 -70.853516 -1958.8633
46.516205 -70.886894 -1959.7987
-58.804565 -68.867378 -1959.4174
-57.131527 -69.048729 -1958.4531
-55.911076 -69.114334 -1958.2758
45.690826 -69.247627 -1958.7424
46.514862 -69.16745 -1959.725
-58.641598 -66.783165 -1959.4156
-57.063873 -67.122536 -1958.5674
-55.909206 -67.682068 -1958.1958
45.805946 -67.18885 -1958.7527
46.512623 -66.874474 -1959.6075
-58.946747 -64.955467 -1959.3502
-57.065849 -65.12249 -1958.6174
-55.908325 -65.679039 -1958.1458
45.769836 -65.261398 -1958.4119
46.791458 -64.956017 -1959.2777
-60.529049 -62.865707 -1959.621
-58.942734 -62.900219 -1959.1945
-57.247421 -63.205399 -1958.2877
-55.905338 -63.959675 -1958.0245
45.66626 -62.991535 -1958.3287
46.748207 -63.017818 -1959.1598
-60.878181 -60.696178 -1959.7885
-59.153866 -61.177406 -1958.8491
-57.626694 -61.391743 -1958.2037
45.905533 -61.104065 -1958.0615
47.018242 -60.955132 -1959.4197
-60.974365 -58.986084 -1959.5931
-59.26609 -59.092999 -1958.5742
-57.626511 -59.961514 -1958.1851
45.90778 -59.391018 -1958.1432
47.014488 -58.958153 -1958.976
-61.099026 -56.94846 -1959.4944
-59.283916 -57.233356 -1958.3403
45.905209 -56.527729 -1958.0092
47.145607 -57.201286 -1959.0607
-62.257088 -54.575256 -1959.9097
-61.039574 -55.051235 -1959.2394
-59.725079 -55.291229 -1958.2042
45.912884 -55.202377 -1958.3286
47.025051 -55.208317 -1959.1718
48.237034 -55.147888 -1959.8096
-62.255009 -52.855965 -1959.8307
-61.091911 -53.126385 -1959.2341
-59.62899 -53.240849 -1958.1631
46.724655 -53.002514 -1958.7727
-62.250443 -51.134735 -1959.6733
-61.135952 -51.09058 -1958.9614
-59.914383 -51.095276 -1958.1293
47.069485 -50.901241 -1958.8212
-61.013832 -49.186428 -1958.9922
-59.915314 -48.808029 -1958.1437
47.231865 -49.193592 -1958.7643
48.236115 -48.84938 -1959.7253
-61.138271 -47.138626 -1959.0083
47.358482 -47.113037 -1958.918
48.241615 -46.850979 -1959.937
-61.181198 -45.109402 -1958.981
47.356918 -45.108608 -1958.839
48.243465 -44.562431 -1959.9978
-62.260815 -43.986504 -1959.9539
-61.270412 -43.070381 -1958.7715
47.449238 -43.103016 -1958.701
48.233765 -43.122307 -1959.5916
-62.262638 -41.124989 -1959.9941
-61.248116 -41.021023 -1958.9189
47.639164 -41.099575 -1958.6586
48.237606 -41.121971 -1959.7369
-62.263126 -38.835056 -1959.9967
-61.20182 -39.101627 -1958.9948
47.634338 -39.092873 -1958.4473
48.42046 -38.920837 -1959.3979
-61.257229 -37.02084 -1959.1891
47.487263 -37.230164 -1958.2676
48.451824 -37.102993 -1959.1123
-61.228939 -35.166359 -1958.928
48.800385 -35.103416 -1959.3103
-61.309502 -33.089104 -1958.7493
48.789822 -33.092857 -1958.8743
-61.384903 -31.095585 -1959.3252
49.370502 -31.095259 -1959.2032
-61.079231 -29.197454 -1958.6842
49.434921 -29.08765 -1958.9092
50.527901 -28.526705 -1959.6993
-61.009003 -27.044638 -1959.0482
49.68322 -27.203369 -1958.6213
50.516861 -27.08956 -1959.2623
-60.801098 -25.080904 -1958.9261
49.921482 -25.074606 -1958.3419
50.741703 -24.969639 -1959.0935
-60.765984 -23.039217 -1959.1056
-59.919559 -22.21096 -1958.1489
49.920017 -23.071384 -1958.2771
50.899338 -23.178499 -1959.283
-60.801586 -21.075109 -1958.9283
-59.922501 -20.781815 -1958.2415
49.922932 -21.356327 -1958.3868
51.09156 -21.080278 -1959.3323
-60.912125 -19.108742 -1959.4155
-59.927231 -19.162384 -1958.3925
49.915413 -19.350914 -1958.0837
51.034035 -19.15283 -1959.1128
-60.764122 -17.189224 -1959.5602
-59.707195 -16.952675 -1958.6765
49.929562 -16.495289 -1958.6357
51.085911 -17.071383 -1959.1011
-60.731918 -15.168029 -1959.75
-59.654224 -15.065446 -1958.8103
49.582092 -15.23501 -1958.4641
51.041004 -15.096328 -1959.3738
-60.544884 -13.06958 -1959.8685
-59.255066 -13.062891 -1958.848
49.238579 -13.060736 -1958.4467
50.8633 -13.295538 -1959.3396
-59.15733 -11.039474 -1959.1072
-57.631359 -10.769884 -1958.1033
47.299194 -10.54451 -1958.681
48.930195 -11.222162 -1959.339
50.533607 -11.352428 -1959.8733
-58.810127 -9.059 -1959.2715
-57.651306 -8.4846048 -1958.7833
45.918205 -8.7691307 -1958.3455
47.079086 -9.0583677 -1959.0463
48.523045 -9.3470898 -1959.5897
-58.688892 -6.9405074 -1959.042
-57.443089 -7.3378234 -1958.1797
45.637447 -7.0534892 -1958.5696
46.748478 -7.4578834 -1959.5844
-58.635204 -5.133038 -1958.8834
45.585686 -5.2802186 -1958.801
-59.238041 -3.0489333 -1959.2228
45.697044 -3.4487565 -1958.6693
46.526726 -2.191149 -1959.8878
-59.245377 -0.91825962 -1958.9344
45.779701 -0.90219206 -1958.5328
46.522076 -1.0458317 -1959.6901
-58.854275 0.81466669 -1959.1455
-57.45145 1.6249727 -1958.4648
45.07193 0.9986062 -1958.8529
46.527073 0.099244997 -1959.9025
-58.536652 2.3892941 -1959.6938
-57.175755 2.8651762 -1958.8187
43.625072 3.531703 -1958.1208
44.723919 2.8898456 -1959.2815
-58.245228 5.8238759 -1959.5199
-57.462078 4.7725997 -1958.829
41.155849 5.3446746 -1958.5817
43.059792 4.3905044 -1958.4285
44.783272 4.7919059 -1958.7422
-58.389236 6.9689631 -1959.5513
-57.083748 6.9669199 -1958.9386
-55.072433 6.9658017 -1958.626
44.777657 7.108676 -1958.4991
47.361469 6.6806955 -1958.8901
48.422199 7.350101 -1959.3647
-58.626637 9.2585678 -1959.5201
-57.112694 8.9743938 -1959.943
-54.991894 8.9708748 -1959.1582
48.631783 9.0932198 -1959.0215
-60.906994 11.165092 -1959.2316
-58.956764 11.118404 -1959.397
49.652771 10.973459 -1958.9912
50.526264 11.549233 -1959.5869
-61.086891 13.118402 -1958.8831
49.926487 12.115116 -1958.5054
50.948719 12.90713 -1959.3213
-62.250992 15.269219 -1959.5212
-61.509842 14.833705 -1958.6918
51.510353 14.835908 -1958.9174
52.250145 15.272335 -1959.8474
-62.526859 16.983641 -1959.1989
-61.632919 16.115938 -1958.0574
51.643475 16.978764 -1958.5441
52.600609 17.202347 -1959.5754
-62.968437 18.902714 -1958.9512
52.920094 18.644461 -1959.2181
-63.256435 21.021446 -1959.1584
53.165356 20.791826 -1958.418
-65.250992 23.281656 -1959.4097
-63.514599 22.845364 -1958.7938
53.082188 22.990395 -1958.8754
-64.912514 24.901772 -1959.2721
-63.705647 25.388102 -1958.5182
51.630096 25.841133 -1958.0599
52.726807 24.851522 -1958.9661
-65.11731 26.433636 -1959.7026
-63.565334 27.186081 -1958.9037
51.518169 27.144695 -1959.2561
-64.733353 28.722504 -1959.6376
-63.44183 29.210974 -1958.7773
49.927994 29.567741 -1958.6169
50.801453 29.004263 -1959.2101
-63.386032 31.292974 -1959.2771
49.277824 31.082376 -1958.7676
-62.91684 33.175835 -1958.9274
47.639912 33.287685 -1958.6483
48.656307 32.58226 -1959.2576
-62.222324 34.430462 -1958.6796
-61.472286 35.010014 -1959.0894
45.916084 35.570866 -1958.3395
47.078377 35.012054 -1959.0961
48.237656 34.450226 -1959.7026
-60.821617 37.023441 -1959.647
-59.807987 37.445511 -1959.2505
45.808533 37.178459 -1958.6429
46.51899 37.025753 -1959.6575
-58.993286 39.016872 -1959.1241
-57.44511 39.383286 -1958.3558
45.213837 39.08617 -1958.9115
-58.254627 40.178288 -1959.9513
-57.009441 40.802044 -1958.9568
-55.920731 41.577263 -1958.3999
43.437977 41.674564 -1958.4062
44.677307 40.909779 -1959.2351
-56.536552 43.040783 -1959.9401
-55.587318 43.243919 -1958.7542
43.407066 42.902252 -1958.7399
44.373196 42.894852 -1959.7249
-54.847355 44.843269 -1959.0854
-53.627556 45.863998 -1958.2344
41.908108 45.293594 -1958.2236
43.021637 45.003983 -1959.207
44.233688 44.472935 -1959.8955
-54.237835 47.041279 -1959.6381
-53.261967 47.212799 -1958.8236
41.776234 47.165485 -1958.7612
42.650139 47.039608 -1959.4855
-52.965412 48.918354 -1959.1533
-51.76577 49.436928 -1958.1467
41.308128 49.178585 -1959.1864
42.517456 48.196255 -1959.9774
-52.520645 50.762508 -1959.6584
-51.350254 51.094868 -1958.6705
39.477905 51.015915 -1958.3054
40.714409 50.970364 -1959.318
-50.923668 52.886013 -1959.2053
-49.440083 53.690403 -1958.5629
37.902252 53.586998 -1958.1924
39.112946 53.112671 -1958.927
40.221889 53.056324 -1959.7422
-50.233353 54.772564 -1959.7728
-49.137146 55.104752 -1958.8502
-47.906864 55.588924 -1958.2598
37.500206 55.108486 -1958.5459
38.992516 54.974571 -1959.6165
-48.695511 56.858692 -1959.3247
-47.589912 57.317059 -1958.6825
35.473045 57.451794 -1958.3254
36.976757 56.91869 -1958.9717
38.508644 56.211369 -1959.9766
-48.513542 58.777214 -1959.6987
-47.067341 59.044491 -1959.0568
-45.621914 59.02557 -1958.4149
35.121048 59.105751 -1958.6444
36.397373 58.673428 -1959.3429
-46.735584 60.977894 -1959.3434
-45.168587 61.148205 -1958.6178
-43.904694 61.598694 -1958.3848
33.672173 61.430035 -1958.4207
35.062576 61.059612 -1959.3947
36.216686 60.216614 -1959.907
-46.224911 62.499916 -1959.7683
-45.001289 62.990864 -1959.4509
-43.275276 63.165081 -1958.6763
31.609592 63.312103 -1958.2437
33.054058 63.110359 -1959.0959
34.784504 63.077919 -1959.8794
-44.785538 64.205688 -1959.4153
-42.905216 64.896408 -1958.9891
-41.235985 65.509674 -1958.4532
29.897547 65.895508 -1958.5339
31.10631 65.261642 -1958.5873
32.580761 64.96833 -1959.3359
-42.792496 66.511169 -1959.8981
-41.062901 67.063995 -1959.3112
-39.675941 67.155937 -1958.6438
29.323658 67.280838 -1958.4222
30.890093 66.983467 -1959.2957
32.208481 66.513817 -1959.9203
-40.642693 68.653267 -1959.7666
-39.035412 69.000702 -1959.053
-37.326794 69.324028 -1958.4777
27.20015 69.327919 -1958.5413
28.906349 68.827682 -1959.2384
30.488693 68.226616 -1959.7896
-38.490913 70.504616 -1959.5154
-37.059074 71.075478 -1959.469
-35.493366 71.13311 -1958.791
25.318924 71.183426 -1958.4456
26.975376 70.999557 -1959.3026
28.199125 70.517639 -1959.8315
-36.780727 72.235657 -1959.9021
-35.206329 72.838722 -1959.0044
-33.176891 73.753113 -1958.376
-31.599958 73.887314 -1958.1353
21.600513 73.90213 -1958.4933
23.10508 73.410309 -1958.7269
24.950203 72.984749 -1959.4703
26.477312 72.22348 -1959.5227
-34.775284 74.522171 -1959.822
-33.141842 74.878181 -1959.1426
-31.045153 75.072914 -1959.2367
-29.148001 75.394333 -1958.6592
-27.59547 75.316032 -1958.0999
17.878103 75.603081 -1958.0991
19.137857 75.379524 -1958.2367
21.111166 75.115028 -1958.941
22.925982 74.734482 -1959.3346
24.188513 74.515808 -1959.609
-34.201771 76.809776 -1959.7838
-33.62767 77.950958 -1959.6987
-30.193766 76.235458 -1959.7115
-28.854593 76.607956 -1959.4733
-27.034784 77.064186 -1958.9375
-25.10813 77.496513 -1958.4974
-23.8808 77.900681 -1958.3853
15.248337 77.555008 -1958.2949
17.103498 77.239326 -1958.7325
19.032061 76.787186 -1959.1439
20.848539 76.420914 -1959.5406
-33.609898 78.767975 -1958.6641
-26.187679 78.528542 -1959.8029
-25.038195 78.800331 -1959.4393
-23.085575 79.12117 -1958.8718
-21.163193 79.329788 -1958.3645
-19.875134 79.612144 -1958.2744
11.015625 79.617973 -1958.3994
13.134378 79.172508 -1958.7008
14.944723 78.915413 -1959.2217
16.555338 78.710022 -1959.5404
-27.03368 80.494843 -1958.9092
-22.867252 80.360214 -1959.8059
-21.02977 80.911407 -1959.2845
-19.165892 81.305183 -1958.8862
-16.903109 81.683678 -1958.5842
-15.298339 81.897469 -1958.2211
5.2941856 81.896347 -1958.1794
7.0112948 81.622383 -1958.4686
9.0154476 81.066811 -1958.8634
11.019993 80.793861 -1959.1862
12.739155 80.665138 -1959.5396
-21.607655 83.680008 -1959.8271
-18.936401 82.536064 -1959.8297
-16.93078 82.908348 -1959.6045
-15.01862 83.076012 -1959.0522
-13.094455 83.220581 -1958.6017
-11.050891 83.382469 -1958.5641
-9.1496487 83.475372 -1958.3435
-7.8623228 83.615959 -1958.2865
-5.573483 83.605347 -1958.0339
-3.0001163 83.618866 -1958.3514
-0.85498703 83.480316 -1958.4542
1.0043067 83.337631 -1958.4602
3.0067978 83.342949 -1958.5873
4.9845018 83.025169 -1959.0649
6.8237557 82.901047 -1959.4137
8.4467354 82.531319 -1959.6959
-14.164205 84.244553 -1959.6294
-12.904772 84.472672 -1959.6094
-10.919698 84.619789 -1959.4783
-9.0115747 84.872314 -1959.4341
-7.0073414 84.844795 -1959.1611
-5.0039816 84.790443 -1959.0034
-3.1445284 84.846413 -1959.1957
-1.0802492 84.643501 -1959.3871
1.0047908 84.521088 -1959.3918
3.0083215 84.24485 -1959.6227
-9.0022154 -118.25662 -1957.8666
-6.809864 -118.43746 -1957.7047
-5.1130157 -118.45958 -1957.4377
-3.0935466 -118.62028 -1957.5757
-0.99725133 -118.23785 -1957.5475
-14.799579 -116.85259 -1957.5924
-12.929016 -117.00427 -1957.2217
-10.998816 -117.17867 -1957.0297
-9.078105 -117.20202 -1956.5966
-6.9970922 -117.33302 -1956.7406
-4.854816 -117.49053 -1956.9871
-2.9020824 -117.25202 -1956.9757
-0.99692184 -117.04893 -1956.76
1.0033978 -117.07424 -1957.1857
3.0036457 -116.77765 -1956.9995
4.9632001 -116.73915 -1957.0393
7.120265 -116.7466 -1957.4427
8.1485453 -116.50909 -1957.2914
-18.880829 -114.4704 -1957.325
-16.949245 -114.99525 -1957.1628
-15.179009 -115.33163 -1956.6976
-13.567376 -115.89297 -1956.533
-0.42535099 -115.87467 -1956.2085
1.0030203 -115.88168 -1956.3279
2.8884516 -115.65619 -1956.376
5.0598907 -115.32062 -1956.4949
7.0038819 -115.05615 -1956.8549
8.8516378 -114.92056 -1957.1681
10.86458 -114.37497 -1957.4221
-24.440357 -112.54103 -1957.8461
-23.130291 -112.7705 -1957.5725
-21.001032 -112.78022 -1957.0225
-19.219509 -113.17277 -1956.6714
-16.995539 -113.60611 -1956.4805
7.3449793 -113.02799 -1956.3372
9.0028296 -113.03967 -1956.5425
11.004339 -113.05576 -1956.8264
12.342486 -112.71786 -1957.5763
-28.445292 -110.2636 -1957.998
-26.868444 -110.6031 -1957.6782
-25.000872 -110.68067 -1956.932
-23.098108 -111.54893 -1957.1339
-21.139351 -111.75616 -1956.5859
-19.849958 -111.87811 -1956.2164
9.8597679 -111.89532 -1956.4989
11.192863 -111.13176 -1956.4575
13.006116 -111.06895 -1957.0341
14.628964 -110.90509 -1957.5088
-29.007179 -108.79657 -1957.2983
-27.484299 -109.4692 -1957.4061
13.220092 -109.28032 -1956.9614
15.010551 -109.6693 -1957.5436
-34.727932 -106.23799 -1957.5411
-33.00798 -106.98455 -1957.254
-31.292145 -107.64823 -1957.198
15.004671 -107.91214 -1956.7489
16.911993 -106.78451 -1957.0186
-37.284622 -104.76404 -1956.6906
-35.858402 -105.62815 -1956.8265
19.006329 -105.34665 -1956.8368
20.145803 -104.47146 -1956.4885
-41.007633 -102.78592 -1957.1003
-39.292122 -103.64014 -1957.0483
21.485617 -103.55029 -1957.0718
23.292088 -102.48711 -1956.7678
24.154037 -102.2208 -1957.1433
-44.638378 -100.71355 -1957.5551
-43.387402 -101.06608 -1956.9945
25.062252 -101.39432 -1956.6254
26.869419 -100.64941 -1957.1407
-46.584846 -98.364372 -1957.2407
-45.132263 -99.2845 -1956.9115
-43.562611 -99.887894 -1956.2876
27.575436 -99.904152 -1956.5277
29.043318 -99.421753 -1957.0321
30.439932 -98.213226 -1956.9857
-46.840767 -97.018326 -1957.1683
-45.564983 -97.322441 -1956.3784
31.23583 -97.285095 -1956.7008
32.540539 -96.89386 -1957.2665
-48.68446 -94.817368 -1957.741
-47.086971 -95.060684 -1956.8499
33.242153 -95.141655 -1956.4766
34.890778 -94.861267 -1957.252
-50.462097 -92.539589 -1957.9226
-48.942791 -92.932816 -1957.594
-47.356827 -93.049126 -1956.5886
33.456745 -92.974968 -1956.6656
35.022156 -93.094269 -1957.4722
-50.417183 -91.143433 -1957.7448
-49.006649 -91.06192 -1956.8517
-47.565437 -91.60965 -1956.3385
33.28735 -91.611084 -1956.2871
35.011902 -91.066505 -1956.868
36.395699 -90.810791 -1957.5254
-50.668488 -89.094391 -1957.5656
-48.997852 -89.045563 -1956.4729
33.572147 -89.037361 -1956.2026
35.012436 -89.067345 -1956.8733
36.656826 -88.931389 -1957.4867
-52.746876 -86.816849 -1957.7686
-50.888176 -86.985672 -1956.9532
-49.278549 -87.227112 -1956.2518
33.668392 -87.516396 -1956.2445
35.007675 -87.055077 -1956.5809
36.94223 -87.01088 -1957.4401
38.452801 -86.234009 -1957.4174
-52.845173 -84.724998 -1957.8561
-51.011993 -85.068794 -1956.9806
-49.279457 -84.752655 -1956.2584
33.860115 -84.757721 -1956.2849
35.165169 -84.959251 -1956.2345
37.019787 -85.081963 -1957.1962
39.028469 -84.527199 -1957.5961
-54.179554 -82.533043 -1957.8431
-52.973351 -83.010468 -1957.4476
-51.13269 -83.147102 -1956.8906
-49.277649 -83.606857 -1956.1731
33.407612 -82.940552 -1956.5316
35.011776 -83.064384 -1956.7661
37.007828 -83.054382 -1956.5396
39.02187 -83.083656 -1957.2451
40.288681 -82.930893 -1957.6963
-54.320251 -80.957031 -1957.743
-53.020645 -81.080124 -1957.2513
-51.078396 -81.049507 -1956.4915
-49.280407 -80.754501 -1956.2493
33.384899 -81.141006 -1956.296
35.008007 -81.136757 -1956.5302
36.879017 -81.285156 -1956.1813
39.004578 -81.210091 -1956.3505
40.549938 -80.899208 -1957.4004
-54.627747 -79.08847 -1957.4703
-53.009365 -79.062477 -1956.8091
-51.17664 -78.962753 -1956.2507
31.572287 -78.752457 -1956.0719
33.204346 -79.073883 -1956.4257
34.947182 -79.21804 -1956.3041
37.191647 -79.039658 -1956.1403
39.193058 -78.661736 -1956.223
40.957432 -79.046631 -1956.8093
42.457104 -78.233482 -1957.4443
-54.855553 -77.086037 -1957.4176
-53.003601 -77.053566 -1956.5718
-51.116848 -77.121651 -1956.2129
33.001732 -77.612015 -1956.125
37.855949 -77.035042 -1956.0007
39.384258 -77.425087 -1956.2461
41.089165 -77.110916 -1956.6312
42.746334 -77.09594 -1957.5869
-54.902092 -75.08152 -1957.3065
-52.998489 -75.046074 -1956.36
-51.275421 -75.890335 -1956.022
31.573269 -75.897888 -1956.1017
41.353039 -75.227989 -1956.5583
42.971886 -74.974686 -1957.4177
-54.94487 -73.078117 -1957.2207
-53.339527 -72.92923 -1956.2734
41.28495 -73.608315 -1956.0223
43.015423 -73.064606 -1956.772
44.178474 -72.811691 -1957.6672
-56.470592 -71.100677 -1957.8638
-54.789337 -71.083282 -1957.3706
-53.128899 -71.018723 -1956.4458
41.8577 -70.753777 -1956.0613
43.068634 -70.886063 -1956.5713
44.460732 -71.090195 -1957.4877
-56.47274 -69.673576 -1957.9244
-54.95013 -69.08287 -1957.3699
-53.436996 -69.201599 -1956.67
43.083797 -68.98716 -1956.592
44.58334 -69.007317 -1957.4705
-54.904911 -66.99926 -1957.3256
-53.327076 -67.170845 -1956.3591
43.218395 -66.973885 -1956.1971
44.689247 -67.053436 -1957.2086
-54.941013 -65.017822 -1957.0044
-53.280643 -64.898598 -1956.1304
43.080406 -65.124008 -1956.4003
44.670788 -65.008324 -1957.2357
-56.46814 -62.805599 -1957.6991
-54.964214 -63.014599 -1957.0714
-53.573853 -63.336029 -1956.3944
43.436485 -63.33646 -1956.3369
44.554314 -63.177872 -1957.3351
-58.189285 -60.523922 -1957.8816
-56.871822 -61.003101 -1957.5187
-55.006134 -61.053974 -1956.5094
-53.566788 -60.470669 -1956.1091
44.927708 -61.070557 -1956.972
-58.184998 -59.18512 -1957.725
-56.977127 -58.999191 -1957.2914
-55.24469 -59.101826 -1956.5111
43.57856 -59.049194 -1956.2655
44.826851 -59.006058 -1957.0331
-58.367401 -56.699024 -1957.4282
-57.02116 -57.068069 -1957.0011
-55.475193 -56.950771 -1956.2257
44.948807 -57.125587 -1957.1071
46.47477 -56.524773 -1957.9095
-58.632812 -54.963215 -1957.3665
-57.068924 -55.210793 -1956.4431
43.576103 -55.045792 -1956.1217
44.828987 -55.050743 -1957.0948
-58.7435 -53.001419 -1957.2277
-57.570423 -53.045742 -1956.2094
45.197273 -53.127666 -1957.0352
-60.473595 -51.370434 -1957.7189
-58.90073 -51.066536 -1957.0101
-57.573322 -51.143536 -1956.2943
45.22023 -51.087429 -1956.8677
46.465115 -51.652382 -1957.4626
-58.93042 -49.194736 -1957.0786
45.379276 -48.992851 -1956.8398
46.473129 -48.801613 -1957.7827
-60.481735 -46.801647 -1957.9523
-59.501423 -46.970928 -1957.0471
45.358986 -46.984665 -1956.7922
46.475578 -47.088264 -1957.8748
-60.476364 -45.081795 -1957.7659
-59.466412 -45.140926 -1956.7756
45.647823 -45.174053 -1956.6895
46.472637 -45.083557 -1957.7368
-60.475067 -43.17448 -1957.7118
-59.496216 -43.028816 -1956.8488
45.684017 -43.152454 -1956.5934
46.664989 -43.083344 -1957.7969
-60.475266 -41.363594 -1957.7073
-59.598461 -41.064533 -1957.0699
45.866604 -41.049526 -1956.2422
46.753536 -41.07555 -1957.4989
-60.472012 -39.073914 -1957.5879
-59.591782 -39.059147 -1956.8363
45.730629 -39.483742 -1956.5291
46.747734 -39.069107 -1957.2416
-60.481304 -37.364017 -1957.8818
-59.64333 -37.169167 -1956.641
46.679604 -36.944809 -1956.7673
-60.470734 -34.784214 -1957.5238
-59.677807 -35.147411 -1956.5117
47.077724 -34.982677 -1956.8883
48.192482 -34.219692 -1957.8524
-60.470249 -33.068325 -1957.4996
-59.643761 -33.168232 -1956.636
47.455017 -33.203003 -1956.9067
48.186478 -32.499702 -1957.5986
-60.477673 -31.070663 -1957.7329
-59.688934 -30.866455 -1956.8594
47.476063 -31.111313 -1956.585
48.177711 -31.064421 -1957.2332
-60.473679 -29.066982 -1957.5938
-59.593845 -29.05625 -1956.8578
47.582527 -29.620205 -1956.2538
48.318214 -29.061432 -1957.1229
-60.48185 -27.641018 -1957.8547
-59.496563 -27.086163 -1956.7808
47.585594 -27.335884 -1956.3722
48.555611 -26.964485 -1957.082
-59.246494 -24.991856 -1956.9015
47.583279 -25.048405 -1956.2676
48.747562 -25.059259 -1957.1292
-59.267029 -23.135902 -1957.1946
48.74263 -23.055662 -1956.9224
-58.860302 -21.113407 -1957.141
47.581589 -20.761173 -1956.1831
48.860371 -20.998913 -1957.052
-58.833015 -19.032757 -1957.1055
47.57885 -19.902763 -1956.0674
49.114487 -18.926775 -1957.2371
-58.586792 -17.136801 -1957.2722
-57.577164 -16.474916 -1956.2585
47.584812 -16.475933 -1956.3052
48.957775 -17.1071 -1957.1958
-58.477951 -15.057305 -1957.73
-57.202358 -14.952452 -1956.4651
47.398136 -14.857719 -1956.4594
48.804665 -14.976633 -1957.3087
-58.194794 -13.056163 -1957.8196
-57.022068 -13.049541 -1956.8116
-55.862488 -12.760044 -1956.2327
45.870827 -12.761036 -1956.3149
47.024006 -13.049595 -1956.7416
48.183571 -13.053957 -1957.4156
-58.196079 -11.626486 -1957.8608
-57.026154 -11.049499 -1956.9508
-55.671722 -10.950198 -1956.2184
45.730408 -11.33266 -1956.4172
46.867786 -11.417922 -1957.0378
48.191162 -11.912131 -1957.7247
-56.968243 -9.1220465 -1957.416
-55.640064 -8.9318476 -1956.443
45.070614 -8.9674463 -1957.0135
-56.910748 -6.9536648 -1957.3479
-55.587631 -7.3320394 -1956.6078
43.229523 -6.8314328 -1956.3872
44.469402 -7.0497599 -1957.5151
-57.097942 -4.9749665 -1956.9547
-55.85952 -4.4728298 -1956.1177
44.666332 -4.8838997 -1957.1877
-58.183777 -2.7602167 -1957.4346
-57.132221 -3.1593044 -1956.6575
-55.857441 -3.901195 -1956.0441
44.871078 -2.696152 -1957.0103
-58.572491 -1.4260069 -1957.6879
-57.024055 -1.04425 -1956.8691
-55.57666 -0.472458 -1956.2158
43.297852 -0.75822598 -1956.2421
44.67942 -1.1160249 -1957.3142
-56.906048 0.7344377 -1957.1805
-55.752789 1.127928 -1956.3824
41.866028 1.2420626 -1956.0957
43.032734 0.95689225 -1957.184
44.191696 0.099143997 -1957.8795
-56.479694 2.958982 -1957.8224
